ply
format ascii 1.0
comment Created by CloudCompare v2.12.4 (Kyiv)
comment Created 2022-09-05T15:09:29
obj_info Generated by CloudCompare!
element vertex 1095
property float x
property float y
property float z
property uchar red
property uchar green
property uchar blue
end_header
-19.485157 5.637275 284.374237 237 179 165 
-16.396030 4.760277 284.396637 254 255 255 
-11.947632 3.480436 284.387848 208 163 142 
-10.155720 2.965690 284.351349 201 156 137 
-9.997172 2.920066 284.351593 195 153 129 
-8.895588 2.602780 284.362640 186 142 133 
-5.616500 1.658066 284.403717 202 166 152 
-4.624401 1.375843 284.397858 205 167 154 
-4.739718 1.299556 288.302826 71 37 35 
-6.560012 1.829069 288.162842 115 93 70 
-10.108900 2.849069 288.126404 170 138 115 
-10.452480 2.947502 288.134766 166 137 119 
-7.760026 2.192071 287.449341 197 161 137 
-15.260181 4.327395 288.154846 191 153 130 
-23.836563 6.805223 288.153534 173 135 134 
-24.684780 7.053061 288.006317 238 205 212 
-24.711981 7.081994 287.184814 226 191 172 
-24.627779 7.059031 287.133636 215 178 172 
-24.753908 7.123141 286.047241 233 186 176 
-24.824633 7.152881 285.682251 232 174 152 
-24.822996 7.155604 285.555298 230 174 147 
-23.011194 6.637135 285.444183 255 210 170 
-24.812428 7.175732 284.649841 203 150 110 
-24.812479 7.178558 284.538361 204 149 128 
-24.782997 7.172904 284.428833 196 159 151 
-23.995325 6.947273 284.387878 253 191 170 
-22.967970 6.651344 284.399963 236 186 163 
-22.302530 6.460112 284.390411 247 202 179 
-20.826365 6.035282 284.393066 255 232 228 
-19.809740 5.743241 284.371887 228 169 151 
-19.621237 5.688904 284.375183 228 177 158 
-16.605133 4.831758 284.396973 255 255 251 
-16.499529 4.801292 284.396851 254 255 253 
-16.287458 4.740144 284.397034 253 252 250 
-15.485844 4.508868 284.398254 225 183 161 
-15.195441 4.425083 284.399750 237 184 166 
-14.919902 4.345597 284.400696 255 206 181 
-14.749805 4.296526 284.400391 254 207 181 
-14.249586 4.152221 284.400940 253 205 183 
-12.781276 3.727540 284.446442 206 158 135 
-11.452464 3.345685 284.389404 205 158 150 
-10.313413 3.017931 284.358734 172 133 102 
-9.129885 2.676489 284.360352 201 154 136 
-8.364790 2.455582 284.368835 193 146 128 
-7.570480 2.225864 284.392120 198 153 132 
-7.473526 2.197482 284.408356 201 152 137 
-6.662864 1.963551 284.411438 208 170 149 
-4.907538 1.460949 284.404938 201 168 151 
-2.702110 0.825305 284.387543 209 167 153 
-3.084421 0.834974 287.927216 39 23 23 
-6.949530 1.943728 288.225922 128 92 68 
-7.649699 2.145163 288.228943 112 75 66 
-8.541771 2.401795 288.233276 148 133 136 
-8.695621 2.448230 288.149628 164 142 119 
-9.373868 2.645660 288.062958 171 98 81 
-9.908223 2.797834 288.125092 177 137 125 
-8.181561 2.320264 287.375732 157 131 118 
-20.107136 5.745851 288.148712 253 216 200 
-20.992334 6.000200 288.187042 254 199 196 
-21.099749 6.031965 288.157135 255 226 223 
-21.702026 6.205927 288.147400 240 206 197 
-22.418652 6.412694 288.144531 244 202 190 
-24.748777 7.083730 288.187164 176 144 131 
-24.670254 7.083585 287.309906 129 102 117 
-24.678579 7.092861 287.041779 255 216 204 
-24.814308 7.172892 285.444702 238 169 153 
-24.812664 7.176854 285.270081 218 157 136 
-24.781570 7.170730 285.160004 215 164 137 
-24.809551 7.181635 285.047760 214 152 137 
-23.771795 6.899164 284.388184 250 192 172 
-22.472767 6.524352 284.392303 250 199 172 
-20.429129 5.935092 284.385223 237 180 161 
-14.494562 4.233470 284.400726 254 209 190 
-13.703157 4.004370 284.410797 248 193 173 
-11.303452 3.310973 284.388763 215 176 169 
-9.236475 2.714025 284.358765 197 154 122 
-8.513893 2.504846 284.366974 193 145 123 
-3.995801 1.200301 284.391388 206 174 163 
-8.935109 2.523422 288.142090 146 116 90 
-9.032955 2.551681 288.140808 153 122 104 
-9.133947 2.580841 288.139771 158 122 100 
-9.230654 2.608803 288.137268 146 111 92 
-10.606520 3.005832 288.131531 182 146 130 
-13.414651 3.813926 288.207123 150 117 100 
-13.958877 3.970986 288.203522 175 140 121 
-14.048760 3.997989 288.162476 123 86 80 
-15.753708 4.489473 288.173096 154 127 120 
-15.140420 4.317488 287.982452 216 136 127 
-17.426353 4.972279 288.161469 227 173 173 
-24.668695 7.085611 287.911682 190 155 187 
-24.675926 7.099867 287.437347 172 140 164 
-24.824436 7.155610 286.937103 207 156 137 
-24.818003 7.166420 286.444855 220 161 143 
-24.799999 7.199780 284.937225 201 157 108 
-23.332771 6.789532 284.388977 246 193 161 
-12.516335 3.650119 284.844299 249 207 193 
-15.871811 4.631794 284.398163 244 202 190 
-12.475430 3.658113 284.395416 172 129 123 
-11.834335 3.472479 284.387878 205 160 141 
-11.724437 3.440642 284.388000 209 163 137 
-9.752793 2.870009 284.354187 197 152 121 
-8.794330 2.591962 284.363922 190 144 129 
-7.157624 2.116247 284.414948 198 147 118 
-6.861300 2.030394 284.413300 198 157 137 
-6.467870 1.916418 284.410797 202 165 147 
-5.774420 1.715572 284.404694 211 173 152 
-5.445872 1.620344 284.403992 202 166 154 
-3.733216 1.126674 284.387848 210 174 152 
-2.060449 0.643306 284.387268 186 149 131 
-7.511944 2.116907 288.195923 131 98 83 
-8.798408 2.490242 288.146057 154 121 88 
-9.590199 2.719648 288.129669 162 128 119 
-11.027390 3.135122 288.134796 181 141 129 
-14.947261 4.267715 288.171875 157 126 121 
-15.353261 4.385689 288.149719 191 153 140 
-15.264316 4.364892 287.959381 233 159 150 
-15.050363 4.308965 287.728241 77 47 47 
-21.410788 6.136743 288.175262 255 216 211 
-24.667133 7.105676 287.753906 152 128 144 
-24.657043 7.106807 287.595062 186 152 189 
-24.806328 7.187726 286.127899 230 168 145 
-24.804796 7.191001 285.985107 222 171 142 
-24.803261 7.193364 285.874115 236 172 145 
-22.785797 6.646422 284.398773 249 193 168 
-21.916607 6.394686 284.391235 248 229 215 
-21.164249 6.176516 284.393646 252 254 251 
-19.338535 5.647855 284.374573 235 182 164 
-15.971060 4.671213 284.398132 251 218 211 
-15.298108 4.476181 284.398468 228 179 164 
-13.462794 3.952526 284.413239 247 187 159 
-10.880191 3.202990 284.386688 225 183 171 
-10.650349 3.136218 284.386963 226 180 164 
-9.527891 2.810961 284.355469 196 154 129 
-7.890614 2.334849 284.374268 198 152 129 
-4.296902 1.293217 284.395844 220 178 166 
-4.720860 1.302346 288.476227 63 36 29 
-5.798090 1.622486 288.147858 132 90 76 
-7.997122 2.263606 288.155182 121 83 70 
-9.709886 2.760878 288.123901 174 129 108 
-11.400095 3.250627 288.130798 190 153 135 
-15.586407 4.463221 288.162018 158 125 120 
-21.607986 6.221595 288.196350 246 201 198 
-22.138792 6.376606 288.163452 211 174 165 
-22.243176 6.407436 288.144806 240 195 189 
-22.758554 6.556987 288.149353 220 177 161 
-24.675575 7.114665 288.119843 155 123 136 
-22.391109 6.473334 287.252716 72 49 67 
-24.807083 7.185666 286.842438 219 164 143 
-24.800848 7.196465 286.350372 223 163 139 
-24.795048 7.209861 285.763550 224 168 141 
-24.634687 7.197939 284.407471 238 202 206 
-23.569271 6.889009 284.387573 254 196 174 
-23.042250 6.735700 284.395081 244 190 156 
-22.659777 6.624614 284.393372 249 191 171 
-20.242956 5.923044 284.374573 241 187 159 
-16.083075 4.714126 284.396942 255 231 229 
-15.574012 4.576816 284.398895 224 177 161 
-15.016077 4.414337 284.399658 247 201 177 
-13.121083 3.862030 284.420624 243 179 152 
-11.612058 3.423483 284.388611 205 158 138 
-9.882642 2.920864 284.350861 207 154 122 
-9.022423 2.670115 284.361755 194 148 122 
-5.949290 1.774106 284.407715 204 172 151 
-3.865415 1.055429 288.454376 74 45 41 
-8.254464 2.341901 288.217865 116 79 70 
-9.994814 2.849876 288.125580 170 130 118 
-11.515981 3.291662 288.129791 194 156 135 
-7.848486 2.244177 287.436340 171 142 134 
-16.509424 4.740625 288.191376 185 165 156 
-21.911663 6.325640 288.156677 239 211 199 
-22.535954 6.507722 288.144135 243 196 186 
-24.666691 7.154406 287.122772 240 191 174 
-24.798328 7.202789 286.731628 212 163 133 
-24.796883 7.205243 286.620514 213 159 135 
-24.792555 7.213718 286.239807 224 163 144 
-24.785843 7.227633 285.621246 216 163 132 
-22.119137 6.482740 284.390289 255 214 192 
-21.534576 6.312499 284.392578 255 252 240 
-14.579597 4.296518 284.400360 255 210 184 
-14.330773 4.223882 284.400635 252 199 183 
-14.095051 4.155122 284.400299 251 200 179 
-13.939724 4.109780 284.400421 249 197 176 
-13.297753 3.922079 284.415894 247 193 155 
-10.475118 3.099158 284.386597 216 173 157 
-4.121273 1.247720 284.393402 219 176 167 
-2.828722 0.871652 284.388428 205 170 151 
-1.936643 0.611227 284.388275 189 152 136 
-6.657924 1.884261 288.150970 140 103 84 
-8.592963 2.447600 288.156372 123 75 71 
-14.578713 4.190715 288.149841 151 123 111 
-15.041986 4.325379 288.157898 210 166 153 
-20.066381 5.799398 288.225891 250 230 223 
-22.909721 6.631028 288.150116 171 134 125 
-23.802443 6.890177 288.201294 169 142 133 
-24.657207 7.164114 287.249329 218 166 155 
-24.555265 7.140590 287.008423 216 172 161 
-24.721823 7.191047 286.935791 195 148 140 
-24.777792 7.243910 285.510742 210 152 132 
-22.981394 6.722909 285.387878 255 217 176 
-24.751703 7.243597 285.225952 192 143 129 
-12.520580 3.668884 285.448273 243 188 158 
-24.772541 7.263575 284.685059 177 130 110 
-24.767361 7.264874 284.574005 180 135 112 
-24.768122 7.267981 284.462585 158 120 84 
-24.389030 7.159133 284.392731 235 182 164 
-24.206318 7.105884 284.389618 245 188 158 
-24.017965 7.050975 284.387085 250 193 163 
-21.722193 6.380978 284.392181 255 244 228 
-21.359898 6.275231 284.392365 253 255 252 
-20.997160 6.169334 284.393433 255 252 253 
-20.534761 6.034511 284.390228 241 201 191 
-19.951712 5.864813 284.373047 225 174 155 
-19.509665 5.735857 284.372437 231 179 158 
-12.336781 3.651169 284.389374 189 144 125 
-12.102638 3.582687 284.389343 210 165 142 
-8.669183 2.578953 284.364319 181 149 124 
-8.182796 2.436467 284.371796 193 150 131 
-8.042477 2.395375 284.373749 195 149 125 
-7.723983 2.302224 284.373016 202 156 130 
-6.130445 1.835064 284.411987 206 168 155 
-4.718341 1.425587 284.399933 214 169 146 
-2.959619 0.802322 288.257904 123 93 82 
-7.150839 2.028717 288.292145 134 94 82 
-11.134216 3.195240 288.135223 183 139 130 
-11.644832 3.344342 288.131226 203 156 148 
-24.632551 7.154578 288.023590 187 155 194 
-24.630753 7.158560 287.849335 187 153 186 
-24.628584 7.162434 287.675171 186 156 180 
-24.627039 7.166028 287.517029 185 154 186 
-24.780432 7.236382 286.526093 195 147 125 
-24.764978 7.268076 285.114685 182 128 118 
-24.763678 7.270511 285.003571 183 131 110 
-23.794767 7.002926 284.387329 253 194 162 
-22.495899 6.622871 284.391205 253 199 173 
-22.310244 6.568570 284.390564 246 199 173 
-20.656301 6.084690 284.393768 255 228 226 
-20.090164 5.919579 284.374390 229 176 158 
-18.923697 5.578396 284.373993 230 180 157 
-16.824087 4.963634 284.396942 255 253 255 
-16.720015 4.933195 284.396362 255 254 252 
-15.682369 4.629638 284.397491 231 186 165 
-9.635412 2.868646 284.354858 199 162 133 
-5.011842 1.514801 284.407501 203 171 158 
-3.053302 0.834094 288.162018 96 57 62 
-6.416325 1.828102 287.937988 125 79 92 
-9.432182 2.705245 288.135803 159 120 103 
-10.690327 3.073445 288.130249 176 134 138 
-8.295207 2.392475 287.369781 157 130 113 
-14.337695 4.139328 288.172424 209 175 150 
-15.150370 4.377495 288.154724 207 160 150 
-15.829909 4.575454 288.187378 147 117 106 
-22.350790 6.499709 288.143677 242 203 198 
-24.721743 7.193725 288.190704 178 139 132 
-24.767845 7.261912 286.066650 207 142 120 
-22.882542 6.751694 284.407013 255 214 182 
-20.834290 6.151435 284.393036 255 250 246 
-19.758131 5.836323 284.376678 229 177 153 
-19.632797 5.799614 284.374603 223 181 159 
-19.074465 5.635949 284.373047 224 182 157 
-16.186630 4.788548 284.396759 255 244 238 
-15.395711 4.556626 284.397766 221 181 156 
-11.199118 3.333699 284.388733 217 173 164 
-1.146585 0.384407 284.385162 202 162 150 
-2.069068 0.544822 288.254578 104 64 52 
-3.990996 1.112607 288.163635 117 64 58 
-6.540156 1.854244 288.326050 99 56 63 
-8.480996 2.432311 288.159119 93 59 47 
-9.805753 2.821589 288.127594 176 139 123 
-7.954076 2.296671 287.430481 177 144 129 
-14.823745 4.292013 288.167877 185 152 137 
-20.951193 6.088905 288.161163 246 207 202 
-24.657228 7.220473 287.045929 255 213 189 
-24.764629 7.267827 286.431702 187 146 126 
-24.759939 7.278679 285.956177 193 150 131 
-24.757683 7.280892 285.845215 193 147 131 
-24.756668 7.284257 285.702515 187 145 123 
-24.748137 7.302104 284.909454 177 139 120 
-24.530252 7.251146 284.399384 238 195 189 
-23.348537 6.904130 284.388672 254 201 167 
-20.415577 6.042610 284.373718 240 188 174 
-16.392675 4.870192 284.396912 254 253 251 
-15.775428 4.678350 284.397858 232 189 172 
-15.097463 4.488662 284.400360 250 198 177 
-14.834600 4.411224 284.400238 253 202 175 
-14.660965 4.360105 284.400513 248 198 171 
-13.597996 4.046681 284.414154 250 196 172 
-12.216857 3.640561 284.389374 203 158 135 
-6.745542 2.028532 284.412354 208 167 147 
-3.338239 1.029986 284.385895 195 166 150 
-1.598203 0.517264 284.387726 181 144 126 
-4.010341 1.127562 287.914124 70 52 48 
-3.984365 1.124029 287.757813 139 112 117 
-4.123109 1.168684 287.605865 85 62 56 
-7.721377 2.212116 288.254211 106 56 57 
-10.843676 3.132938 288.132599 199 162 144 
-11.232915 3.247300 288.133301 193 151 139 
-11.770448 3.405295 288.132294 205 158 148 
-21.637007 6.318212 288.148010 255 214 216 
-24.548426 7.198889 287.246674 217 178 161 
-24.762691 7.271550 286.876251 181 129 115 
-24.756729 7.284067 286.321136 193 144 127 
-24.755072 7.287246 286.178467 187 144 128 
-24.747734 7.304250 285.433502 191 146 115 
-23.070728 6.837054 284.393707 252 195 168 
-21.920145 6.498233 284.391602 255 228 214 
-21.169956 6.277249 284.393738 255 255 255 
-19.199940 5.697555 284.374451 230 182 162 
-16.610508 4.934376 284.396423 254 255 250 
-16.502399 4.902525 284.396515 255 255 253 
-15.198071 4.528031 284.399200 241 193 173 
-14.408278 4.294887 284.400848 251 200 179 
-13.824381 4.122432 284.404816 253 206 180 
-11.995151 3.582964 284.388092 188 156 131 
-11.057397 3.306178 284.387848 210 173 164 
-10.210309 3.057003 284.354279 180 136 109 
-7.370950 2.217384 284.414429 211 158 140 
-6.289890 1.898363 284.411621 204 166 157 
-7.814485 2.243862 288.275940 107 63 60 
-14.099047 4.098155 288.148132 214 167 147 
-14.652364 4.260963 288.154144 184 156 145 
-15.264218 4.441195 288.152618 209 156 148 
-15.008325 4.384361 287.806305 97 58 53 
-20.047279 5.862765 288.149811 255 231 234 
-22.096184 6.467091 288.164764 216 182 173 
-22.196613 6.497254 288.145813 239 194 189 
-22.702148 6.646382 288.149597 227 193 183 
-24.624794 7.214575 288.121246 150 118 129 
-24.602951 7.212693 287.945190 183 155 193 
-24.600647 7.216462 287.771057 178 153 185 
-24.598633 7.220378 287.597076 176 149 194 
-24.606390 7.226701 287.439575 167 132 156 
-22.346466 6.564105 287.268890 73 45 57 
-24.594887 7.231079 287.139160 255 220 204 
-24.754011 7.287625 286.765503 176 135 105 
-24.753077 7.290234 286.654449 176 134 112 
-24.741491 7.314107 285.592529 188 136 122 
-24.738228 7.320937 285.291290 180 132 118 
-24.696711 7.331052 284.420197 189 155 153 
-23.594730 7.006632 284.386627 255 197 173 
-22.669621 6.733425 284.393402 251 194 174 
-19.353582 5.755182 284.373627 237 185 164 
-15.984811 4.771295 284.396606 252 220 209 
-15.882030 4.740870 284.396942 245 203 189 
-14.166212 4.233175 284.400909 253 204 190 
-13.365717 3.995980 284.415894 236 183 152 
-13.191166 3.944221 284.420074 235 181 155 
-12.463604 3.727515 284.477509 196 149 131 
-11.496743 3.443725 284.389435 207 170 151 
-10.738480 3.219478 284.386383 236 189 173 
-10.066709 3.021639 284.351471 205 163 141 
-6.988348 2.109283 284.414490 200 155 136 
-3.856942 1.074492 288.317993 101 58 51 
-8.112105 2.338942 288.189636 118 72 57 
-9.299874 2.690838 288.139679 156 121 93 
-10.160402 2.945077 288.130157 195 149 136 
-10.274513 2.978691 288.133057 192 150 136 
-10.510542 3.048389 288.132202 173 139 127 
-8.389217 2.441988 287.369812 156 125 120 
-14.471278 4.216072 288.185333 175 135 136 
-15.374318 4.483558 288.148407 185 152 147 
-22.474176 6.594682 288.143829 235 197 184 
-23.752712 6.972192 288.171082 181 149 134 
-24.647308 7.261375 287.221222 239 197 181 
-24.559555 7.240797 287.012268 208 184 172 
-24.706007 7.285218 286.970520 221 176 157 
-24.729300 7.338110 285.180878 173 128 107 
-24.723391 7.349806 284.657135 189 161 122 
-24.722374 7.352395 284.545898 172 134 111 
-24.213961 7.205957 284.389862 247 184 167 
-24.031818 7.152199 284.386902 252 187 169 
-22.127178 6.588593 284.390350 249 213 187 
-21.535414 6.413479 284.393097 254 255 249 
-20.155249 6.005460 284.382263 230 174 157 
-12.489867 3.723949 284.919556 238 186 164 
-14.924625 4.468439 284.399780 255 198 179 
-13.697546 4.104253 284.410889 251 200 179 
-11.883753 3.566936 284.387787 198 161 145 
-11.343678 3.406734 284.389160 225 180 175 
-10.356109 3.113946 284.384277 212 169 153 
-9.408614 2.833650 284.356781 198 156 132 
-2.950029 0.807597 288.395691 93 56 38 
-7.864168 2.272130 288.151520 126 90 76 
-11.878943 3.460505 288.129822 211 164 154 
-14.001124 4.086330 288.207947 134 98 84 
-17.357622 5.079099 288.217041 194 157 151 
-21.868618 6.431038 288.158752 252 218 208 
-22.862827 6.726098 288.151398 188 145 136 
-24.736515 7.322794 286.560150 178 131 115 
-22.942961 6.819859 285.435211 255 210 174 
-24.719423 7.356048 285.070465 173 139 101 
-24.596434 7.336509 284.411316 208 178 168 
-24.370794 7.269986 284.394928 231 175 162 
-23.813807 7.105036 284.386749 253 199 173 
-21.719715 6.483836 284.392975 255 249 230 
-21.357119 6.376276 284.393127 253 255 252 
-20.998560 6.269953 284.393860 254 255 255 
-19.989435 5.970933 284.383118 234 178 161 
-15.489336 4.635976 284.397614 232 180 169 
-15.294270 4.578124 284.398621 235 189 166 
-10.554996 3.180676 284.386841 219 181 162 
-7.180511 2.073793 288.200684 121 71 70 
-8.457315 2.450685 288.270416 102 54 50 
-10.372598 3.022286 288.133545 181 149 124 
-8.079341 2.360311 287.432983 173 146 127 
-14.900681 4.364215 288.172394 143 111 100 
-16.262075 4.767860 288.175934 185 155 147 
-16.471798 4.830456 288.160583 181 160 155 
-24.579786 7.256129 288.040894 191 153 194 
-24.594139 7.278752 287.330566 80 53 70 
-24.722578 7.348690 286.101013 175 135 125 
-24.719292 7.355837 285.784180 177 140 122 
-22.505140 6.733376 284.391235 250 191 173 
-22.308338 6.674909 284.391388 253 202 181 
-20.514767 6.141648 284.392365 250 213 204 
-20.271646 6.069837 284.372772 237 182 162 
-19.501423 5.840828 284.373505 227 176 157 
-16.088421 4.825584 284.396271 254 229 222 
-15.586647 4.676378 284.397339 223 180 161 
-14.007439 4.206755 284.401062 255 209 191 
-13.035033 3.917107 284.422241 222 170 148 
-12.731340 3.834497 284.451813 199 151 131 
-11.768229 3.549132 284.388397 216 168 145 
-9.299860 2.814424 284.357605 194 147 121 
-8.417433 2.551251 284.367249 197 155 130 
-8.268063 2.506665 284.369568 192 146 122 
-5.346992 1.635323 284.405334 188 157 139 
-5.179603 1.588597 284.405792 217 175 150 
-8.862326 2.578841 288.209564 175 133 117 
-10.948822 3.201169 288.134064 187 148 131 
-15.513573 4.557683 288.159485 166 135 117 
-15.718931 4.618269 288.177155 154 122 107 
-20.052614 5.904991 288.243500 255 246 226 
-21.553921 6.352455 288.198822 249 206 197 
-24.676760 7.297287 288.192657 171 144 127 
-24.571270 7.274285 287.866974 192 155 196 
-24.569309 7.278154 287.693024 188 153 195 
-24.566109 7.281716 287.519104 188 157 188 
-24.720030 7.354772 286.465820 178 132 119 
-24.717047 7.359197 286.259857 170 132 119 
-24.714851 7.365490 285.990540 184 141 124 
-24.710526 7.372392 285.673767 185 142 123 
-24.709513 7.376154 285.515381 187 147 121 
-24.701977 7.387811 284.976532 182 157 117 
-12.479921 3.735753 285.379089 233 199 138 
-23.375929 7.007837 284.387421 254 198 175 
-23.111856 6.929042 284.391327 255 199 176 
-22.855158 6.852447 284.395050 247 189 167 
-20.646978 6.194525 284.395050 252 238 237 
-12.391572 3.742441 284.389374 161 128 87 
-11.655305 3.522606 284.389008 212 166 150 
-10.918853 3.302783 284.386658 224 176 166 
-9.952897 3.015298 284.350464 199 157 135 
-9.155315 2.776907 284.359528 196 150 126 
-8.916346 2.705482 284.362244 197 144 128 
-8.571687 2.602511 284.364807 196 147 132 
-6.562036 2.001251 284.411285 209 173 149 
-3.567959 1.110101 284.387268 187 158 142 
-2.527689 0.800440 284.386078 197 162 156 
-10.042435 2.938406 288.128326 176 141 121 
-11.323960 3.320199 288.131348 199 162 144 
-11.985853 3.517544 288.126801 202 159 150 
-20.898163 6.183531 288.215912 248 215 210 
-22.295303 6.588945 288.143982 251 208 199 
-24.555510 7.301266 287.219513 218 171 141 
-24.629938 7.326671 287.096558 241 191 182 
-24.717581 7.359306 286.846619 169 130 115 
-20.818487 6.258341 284.394836 253 253 253 
-19.762695 5.943596 284.376678 225 177 154 
-19.633627 5.905095 284.374908 227 179 159 
-16.817682 5.063746 284.397552 255 253 254 
-15.686283 4.736106 284.396881 223 180 164 
-14.484868 4.376485 284.401215 250 201 187 
-14.239021 4.302935 284.401428 251 204 184 
-9.782868 2.970775 284.353546 209 163 137 
-7.617794 2.322264 284.379059 198 152 129 
-7.213543 2.200383 284.414368 199 158 136 
-6.523098 1.890912 288.232666 104 62 64 
-6.744995 1.958696 288.174652 138 95 79 
-9.881772 2.896557 288.128418 165 139 112 
-11.438338 3.361260 288.130249 194 158 136 
-8.505038 2.505219 287.367798 141 125 109 
-14.536971 4.285907 288.150909 171 128 122 
-15.048575 4.438534 288.156189 202 165 147 
-24.708954 7.375571 286.735962 168 133 113 
-24.695415 7.393561 285.880615 207 159 145 
-24.635551 7.387090 285.438568 203 171 158 
-24.587584 7.376759 285.281952 186 157 139 
-24.568293 7.373781 285.172119 202 164 161 
-24.548445 7.370698 285.062439 205 169 155 
-24.542618 7.371756 284.952332 209 177 162 
-24.535189 7.376450 284.684448 217 193 149 
-24.536007 7.379574 284.573914 217 187 159 
-24.476320 7.366061 284.404114 235 193 181 
-21.921432 6.601919 284.392120 255 221 199 
-21.183960 6.381181 284.393158 255 251 251 
-20.372993 6.138965 284.377686 243 188 167 
-16.717873 5.055879 284.396545 255 255 255 
-16.294819 4.929033 284.396118 255 249 249 
-16.190987 4.897885 284.396179 255 240 232 
-15.010714 4.543874 284.399811 248 195 177 
-13.505741 4.092130 284.415985 244 184 160 
-13.268365 4.020853 284.418762 229 178 147 
-5.845389 1.795099 284.405731 200 163 147 
-5.524070 1.702447 284.404022 202 166 150 
-7.301584 2.130288 288.148438 118 75 58 
-8.952844 2.623308 288.191040 178 150 128 
-9.059428 2.656441 288.143494 125 98 79 
-9.159775 2.686505 288.142120 135 109 96 
-10.588594 3.114376 288.130096 181 143 132 
-8.181025 2.412146 287.430511 182 150 137 
-17.302412 5.134345 288.146973 204 163 161 
-22.050213 6.557608 288.165863 225 195 184 
-22.662552 6.741654 288.151489 223 183 175 
-23.748072 7.065720 288.206207 184 146 135 
-24.578217 7.316854 288.123077 160 121 126 
-24.551477 7.312962 287.962616 209 171 196 
-22.303419 6.656376 287.285248 93 63 63 
-24.566813 7.342076 287.016266 255 204 173 
-24.704433 7.384850 286.958313 164 123 101 
-24.698126 7.391565 286.625305 189 143 130 
-24.674324 7.390933 286.371613 188 148 136 
-24.627472 7.381414 286.197266 195 171 161 
-24.587887 7.371965 286.102448 212 185 178 
-24.562664 7.367274 285.992126 219 198 193 
-24.553095 7.367208 285.881989 235 211 209 
-24.542963 7.367036 285.771851 243 226 232 
-24.539268 7.368797 285.661682 241 232 225 
-24.537821 7.371171 285.551514 250 238 238 
-24.536476 7.373634 285.441345 250 239 235 
-24.045288 7.253507 284.386719 249 191 171 
-23.606476 7.121893 284.386627 249 191 169 
-22.602900 6.820633 284.398987 221 164 144 
-12.441463 3.770250 284.843536 252 213 196 
-15.779296 4.784884 284.397247 237 190 180 
-14.737851 4.471778 284.401062 240 191 174 
-12.267878 3.729733 284.389648 190 149 129 
-8.813189 2.692087 284.363770 183 147 123 
-4.377928 1.361197 284.396362 210 173 154 
-3.173958 1.000922 284.386963 211 176 157 
-7.562419 2.211489 288.218750 115 73 57 
-8.348679 2.446472 288.250275 116 82 55 
-9.598831 2.824616 288.127502 184 131 117 
-11.565887 3.414400 288.131775 219 173 157 
-14.306573 4.235185 288.174866 214 167 157 
-15.161452 4.492116 288.153564 218 166 152 
-14.979673 4.458529 287.730011 74 45 49 
-19.992287 5.953486 288.175873 255 228 219 
-22.433828 6.688074 288.145569 241 196 191 
-24.542486 7.331027 287.788818 252 213 216 
-24.541330 7.335200 287.615082 252 208 223 
-24.531441 7.344862 287.125732 210 168 154 
-24.602959 7.376880 286.718353 197 160 151 
-24.573668 7.370974 286.607208 209 185 175 
-24.551102 7.367076 286.496460 242 220 222 
-24.541790 7.367089 286.386078 255 240 237 
-24.538998 7.369120 286.275879 255 250 250 
-24.632950 7.438964 284.663544 243 216 163 
-24.637321 7.443112 284.552216 235 199 175 
-24.641312 7.447213 284.440918 216 185 165 
-24.228903 7.324582 284.389740 237 184 166 
-22.124165 6.691972 284.391205 241 198 181 
-21.530691 6.513500 284.394012 255 243 243 
-20.081093 6.078298 284.375793 229 178 151 
-19.246458 5.827264 284.383179 235 184 165 
-16.607288 5.045377 284.396667 254 255 255 
-16.502806 5.013900 284.396393 250 254 253 
-16.397661 4.982219 284.396301 251 255 252 
-15.388382 4.678133 284.398224 227 183 170 
-14.078217 4.283370 284.401581 253 205 185 
-12.094525 3.686110 284.389313 200 161 146 
-10.638412 3.247509 284.386993 224 180 153 
-9.517564 2.910681 284.355072 205 151 127 
-7.930574 2.432112 284.373749 204 155 138 
-7.798346 2.392214 284.375580 208 158 135 
-6.369335 1.960807 284.410950 215 168 152 
-5.681380 1.753710 284.404297 201 159 143 
-3.818176 1.195438 284.389343 208 173 145 
-4.701934 1.349119 288.385925 68 46 32 
-8.637401 2.540911 288.169006 144 112 91 
-10.730364 3.170980 288.130676 159 135 111 
-11.053685 3.268048 288.134918 183 145 126 
-12.105844 3.584499 288.126038 208 166 144 
-21.791582 6.509943 288.156738 250 212 209 
-22.818865 6.819524 288.152893 197 149 147 
-24.531988 7.353601 287.457458 254 213 221 
-24.529968 7.357116 287.299713 199 158 188 
-24.539116 7.369601 286.921936 233 209 209 
-24.538147 7.372187 286.811646 240 224 224 
-24.615629 7.421137 285.819183 255 250 251 
-24.647755 7.433312 285.724030 255 247 239 
-24.659096 7.439553 285.613098 255 239 225 
-22.905428 6.915786 285.438293 255 209 183 
-24.657419 7.448045 285.264801 219 189 179 
-24.667227 7.453899 285.153595 231 184 174 
-24.665779 7.456287 285.042664 223 169 157 
-24.665001 7.459341 284.915833 221 173 151 
-23.824135 7.219676 284.386871 245 190 170 
-21.718199 6.585098 284.393677 255 227 216 
-19.917418 6.043039 284.376617 238 182 157 
-15.194235 4.630346 284.399292 237 190 170 
-14.827532 4.519596 284.400604 241 188 170 
-11.237364 3.435818 284.389160 224 170 170 
-9.048904 2.775761 284.360413 198 155 136 
-4.811421 1.498154 284.402130 214 175 160 
-9.480453 2.802462 288.109314 170 100 92 
-9.702449 2.868761 288.131653 165 136 118 
-8.604930 2.557992 287.368011 161 132 118 
-14.778349 4.396940 288.169159 183 149 140 
-15.268506 4.545092 288.149872 202 164 145 
-16.104942 4.801694 287.971771 202 159 152 
-21.507992 6.439200 288.171814 251 211 209 
-24.641239 7.427410 286.546600 251 250 246 
-24.668831 7.446758 286.119873 245 227 213 
-24.668898 7.450850 285.961609 241 208 201 
-24.384464 7.405399 284.395050 228 184 171 
-22.472223 6.828034 284.394348 220 167 153 
-22.295824 6.774795 284.392975 229 182 166 
-21.349627 6.489057 284.394348 255 245 243 
-21.004852 6.384997 284.393921 255 252 253 
-20.200089 6.142373 284.379059 244 182 169 
-19.370024 5.891581 284.385071 235 186 169 
-19.038195 5.791265 284.388947 245 188 169 
-15.990741 4.881082 284.395782 253 216 190 
-15.887385 4.849789 284.396179 247 202 181 
-15.095892 4.610174 284.400146 239 192 172 
-14.566881 4.450114 284.401154 248 200 180 
-14.314125 4.373592 284.401825 252 205 185 
-10.421461 3.196147 284.386414 222 174 154 
-9.664779 2.968009 284.354156 198 153 130 
-8.088869 2.490687 284.372437 207 158 143 
-4.531511 1.416340 284.396881 207 173 164 
-1.409416 0.359133 288.384705 102 56 40 
-6.552166 1.911965 288.425934 117 76 74 
-6.954431 2.042921 288.238434 118 82 56 
-7.404321 2.180430 288.175018 123 70 64 
-9.050497 2.675326 288.259338 148 113 91 
-9.360606 2.773394 288.090088 178 85 68 
-11.785115 3.504371 288.134277 216 170 155 
-14.621476 4.360223 288.156860 210 175 155 
-15.772132 4.707078 288.178772 141 117 117 
-16.040140 4.788451 288.162750 182 152 126 
-16.336042 4.877052 288.191071 177 149 148 
-22.244415 6.676250 288.144592 250 203 195 
-24.523945 7.368630 288.042694 254 237 227 
-24.521955 7.372104 287.884460 255 240 227 
-24.622229 7.427764 286.910248 237 207 196 
-24.664139 7.442839 286.816711 244 221 207 
-24.668209 7.453466 286.452698 235 197 176 
-24.666767 7.457169 286.294373 236 191 170 
-24.658239 7.474627 285.518829 227 180 154 
-23.378834 7.131008 284.388062 245 193 179 
-23.136808 7.043413 284.390259 234 187 171 
-22.871309 6.976939 284.394653 224 178 162 
-22.666019 6.914740 284.394836 226 179 163 
-20.835766 6.359848 284.393921 253 244 249 
-20.666756 6.308594 284.393982 254 235 237 
-20.501194 6.258385 284.394012 252 219 214 
-19.516171 5.959996 284.385193 233 182 165 
-15.482443 4.736652 284.398071 226 183 177 
-13.799216 4.226093 284.407135 241 191 168 
-13.376818 4.097853 284.413849 219 168 151 
-11.540469 3.541706 284.389557 215 169 153 
-11.091280 3.405547 284.388702 211 171 163 
-8.687480 2.677341 284.364075 188 145 126 
-7.063346 2.183605 284.414063 198 156 132 
-2.250103 0.620114 288.188080 81 52 46 
-5.700361 1.666600 288.146088 146 107 90 
-6.564857 1.931710 288.148376 148 110 91 
-8.528825 2.525846 288.155518 128 88 78 
-11.155363 3.321178 288.133759 174 142 127 
-12.215576 3.642291 288.122589 207 168 151 
-8.314237 2.479742 287.433197 182 152 142 
-14.950232 4.478050 288.156708 206 158 144 
-15.569327 4.665306 288.172913 173 139 129 
-16.422117 4.924490 288.150238 191 163 160 
-17.308249 5.191056 288.229828 206 167 152 
-20.857471 6.268529 288.176453 247 210 204 
-23.677074 7.123890 288.157928 172 149 135 
-24.627052 7.410971 288.194855 181 141 129 
-24.513140 7.388976 287.710785 255 232 228 
-24.543787 7.411331 287.207642 252 201 198 
-24.664774 7.460962 286.706390 241 179 154 
-19.707836 6.032149 284.381653 229 179 156 
-16.087742 4.931657 284.396149 255 224 205 
-15.581161 4.777670 284.397675 226 187 170 
-13.921783 4.273258 284.401550 245 199 176 
-12.411019 3.812665 284.459015 190 143 117 
-11.928269 3.667771 284.388367 204 162 148 
-11.381833 3.501674 284.389893 216 175 169 
-10.822354 3.331737 284.386230 227 182 177 
-6.885426 2.134580 284.413147 208 165 133 
-6.033089 1.875614 284.409912 218 170 158 
-5.079205 1.589281 284.407104 203 168 146 
-8.743078 2.594966 288.197113 145 102 109 
-22.091047 6.658981 288.145996 254 206 206 
-24.502735 7.407238 287.553131 255 235 237 
-24.548761 7.433422 287.082367 255 218 203 
-12.451141 3.799212 285.453644 212 159 127 
-24.547991 7.502151 284.416016 208 177 172 
-21.919918 6.704098 284.392822 244 195 180 
-20.329638 6.235058 284.381653 240 187 179 
-16.824701 5.167125 284.396820 255 245 244 
-15.290271 4.699718 284.398682 230 185 164 
-13.673186 4.206828 284.413116 242 188 162 
-13.145640 4.046480 284.399109 196 148 125 
-11.817266 3.642179 284.388245 212 162 151 
-10.264725 3.169911 284.363708 153 114 85 
-9.857629 3.046201 284.352478 208 157 126 
-7.516770 2.332112 284.394806 200 160 125 
-6.644179 2.065876 284.411713 213 172 154 
-8.012218 2.379709 288.170227 120 76 63 
-8.705177 2.611220 287.367859 152 124 113 
-22.614447 6.833242 288.152557 229 183 183 
-22.252800 6.745986 287.272522 80 56 54 
-22.895708 6.943521 287.204773 214 165 150 
-24.643106 7.501814 286.200623 254 191 158 
-24.641724 7.505470 286.042480 250 190 154 
-24.639603 7.508900 285.884247 254 192 167 
-24.629845 7.529286 284.982025 216 153 135 
-24.626268 7.537225 284.633240 220 189 134 
-24.625422 7.539869 284.522217 208 170 151 
-24.439947 7.501700 284.407715 219 187 174 
-24.230108 7.438072 284.390533 217 179 158 
-24.046743 7.367073 284.387451 228 186 164 
-23.602726 7.246686 284.387756 236 188 166 
-22.117203 6.793145 284.392334 230 181 167 
-21.182680 6.507879 284.393890 254 237 230 
-18.595325 5.718281 284.391602 235 193 169 
-14.911019 4.593529 284.400787 233 184 170 
-13.558980 4.180434 284.417908 232 178 154 
-10.136663 3.137608 284.351196 183 137 111 
-6.182825 1.929261 284.411285 204 165 148 
-4.199055 1.326955 284.394653 203 169 159 
-3.427718 1.093492 284.385925 213 175 154 
-2.952116 0.839661 288.162628 134 90 61 
-9.241200 2.761872 288.078522 161 80 79 
-10.201369 3.052923 288.132935 167 140 123 
-10.435154 3.124160 288.132172 188 146 132 
-10.826859 3.243471 288.131378 193 149 138 
-11.638184 3.490536 288.133606 227 179 159 
-12.337543 3.703913 288.120789 207 159 145 
-14.466258 4.359213 288.203796 184 157 140 
-15.413633 4.649683 288.153687 178 143 124 
-14.940434 4.514270 287.807190 89 48 52 
-19.972160 6.038982 288.230743 250 233 226 
-22.371305 6.773458 288.145203 237 193 192 
-24.522339 7.430542 288.124878 169 130 131 
-24.493052 7.425744 287.964355 251 222 226 
-24.491638 7.429392 287.806305 248 212 224 
-24.523169 7.460297 286.987915 247 211 179 
-24.527641 7.464475 286.877808 254 215 184 
-24.641766 7.506186 286.612549 247 181 147 
-24.638599 7.511407 286.375122 250 185 153 
-24.631458 7.524818 285.773926 251 189 152 
-24.630070 7.527226 285.663177 225 179 153 
-24.628208 7.532382 285.441681 233 185 171 
-24.616035 7.532342 285.299530 198 160 157 
-24.625105 7.538014 285.188446 224 157 140 
-23.846590 7.337104 284.386078 232 181 162 
-21.735907 6.691314 284.392883 241 198 191 
-21.539816 6.631295 284.393921 251 211 203 
-20.042797 6.173766 284.379333 226 179 153 
-19.810411 6.102557 284.385895 227 181 155 
-19.604635 6.039484 284.390533 234 188 164 
-19.186924 5.911734 284.388611 242 187 166 
-16.719002 5.156658 284.396362 255 254 255 
-15.682263 4.839527 284.397034 224 181 172 
-14.650302 4.523762 284.400970 245 198 180 
-14.392426 4.444875 284.401917 249 206 189 
-14.143821 4.368826 284.402740 248 201 185 
-8.474505 2.635625 284.365234 196 151 128 
-6.452971 2.016074 284.410126 205 167 146 
-2.915795 0.938402 284.388397 202 166 154 
-3.838121 1.112058 288.225006 127 86 90 
-7.782768 2.319047 288.211548 81 60 39 
-8.429819 2.517101 288.190216 116 79 73 
-9.781483 2.931184 288.132385 177 138 123 
-11.896675 3.576761 288.133423 198 156 140 
-8.422482 2.534687 287.430695 179 143 129 
-8.804440 2.658804 287.366791 152 125 114 
-14.839262 4.483777 288.172729 136 109 82 
-15.065866 4.553517 288.156006 220 171 154 
-21.988634 6.670801 288.166962 241 200 196 
-22.761702 6.907601 288.153137 207 163 154 
-24.482014 7.451828 287.459442 209 167 189 
-22.866959 7.010193 285.441345 234 189 166 
-24.616318 7.554654 285.078125 219 153 141 
-22.975677 7.085608 284.402435 232 179 163 
-22.755152 7.017965 284.403564 229 179 172 
-22.468725 6.930414 284.395233 202 162 150 
-22.304943 6.880255 284.392883 209 161 147 
-21.357756 6.589865 284.394196 255 221 216 
-21.017723 6.485631 284.393372 254 234 233 
-18.749018 5.790255 284.390076 239 186 172 
-12.424578 3.837917 284.917664 245 188 168 
-16.294180 5.037587 284.396027 251 242 237 
-16.190538 5.005806 284.396027 252 230 219 
-10.015665 3.114095 284.351349 193 154 125 
-8.322821 2.594728 284.367432 207 150 139 
-8.175728 2.549556 284.369843 206 158 136 
-6.785862 2.122370 284.413116 213 162 145 
-10.093227 3.033069 288.132080 182 138 129 
-12.007609 3.618713 288.129730 188 145 129 
-12.475509 3.761880 288.128754 188 150 137 
-15.679947 4.751376 288.170929 141 116 111 
-17.321926 5.255377 288.145050 218 187 185 
-21.460775 6.522687 288.200256 253 225 213 
-21.767155 6.617629 288.160522 255 220 212 
-24.504627 7.479500 287.287903 255 202 175 
-24.629463 7.531188 286.771606 241 179 156 
-24.625875 7.536612 286.518280 245 172 153 
-24.614548 7.558160 285.553375 227 181 166 
-22.837276 7.056656 284.471497 214 167 161 
-22.578524 6.979012 284.401794 210 163 153 
-20.175797 6.241386 284.381439 226 174 160 
-19.044920 5.893760 284.388611 238 182 165 
-15.776954 4.889558 284.397217 231 185 169 
-14.997258 4.649949 284.400879 225 186 171 
-12.324114 3.829012 284.389191 155 127 105 
-12.143728 3.773596 284.389648 199 164 134 
-11.702131 3.637941 284.388672 211 167 138 
-10.953825 3.408098 284.387024 220 174 159 
-7.130114 2.127665 288.272614 106 62 59 
-7.904481 2.368303 288.149200 122 75 67 
-9.929299 2.989513 288.131866 188 148 136 
-10.300727 3.103293 288.134369 182 147 128 
-11.246193 3.393213 288.131927 197 158 143 
-23.686172 7.220453 288.209564 197 154 147 
-24.499872 7.497661 287.162231 253 207 184 
-24.615734 7.556121 286.281372 255 184 164 
-24.613840 7.559685 286.123260 252 189 156 
-24.612474 7.563349 285.965118 255 191 155 
-24.610958 7.590372 284.904541 205 144 125 
-22.825647 7.066229 284.590363 217 169 167 
-20.674873 6.409039 284.393738 254 223 231 
-20.384373 6.319646 284.390594 234 191 185 
-19.898588 6.170060 284.391479 230 181 174 
-19.327391 5.994251 284.389038 237 183 171 
-18.909109 5.865443 284.388245 235 184 165 
-16.607496 5.156533 284.396545 252 254 253 
-16.502634 5.124241 284.396271 255 255 255 
-16.400238 5.092756 284.395905 254 249 246 
-15.378098 4.777896 284.398987 217 177 165 
-13.990167 4.350471 284.402222 241 196 167 
-13.256015 4.124375 284.402222 211 161 138 
-10.544153 3.289746 284.386658 224 183 163 
-9.214665 2.881061 284.358704 198 151 135 
-7.700787 2.414491 284.374115 203 148 128 
-7.292041 2.287607 284.413940 201 160 140 
-10.625278 3.210012 288.130096 173 137 121 
-11.356654 3.434710 288.130493 206 158 146 
-15.176883 4.618489 288.153748 215 171 162 
-15.289804 4.653353 288.149414 200 150 139 
-19.926514 6.081058 288.151276 255 251 245 
-20.815876 6.353197 288.218140 250 222 218 
-22.188908 6.777835 288.145630 252 196 199 
-24.464714 7.480855 288.060120 191 160 192 
-24.463951 7.485164 287.886353 199 166 197 
-24.462450 7.488784 287.728455 194 160 197 
-21.196083 6.490605 287.435944 229 150 153 
-21.927080 6.810217 284.392853 200 167 152 
-20.822458 6.469217 284.395477 249 223 232 
-20.506676 6.371773 284.394012 244 212 217 
-19.457178 6.047989 284.390503 231 185 162 
-14.730680 4.588961 284.401306 245 192 178 
-14.472791 4.509369 284.401886 247 201 175 
-9.395795 2.943591 284.356445 202 154 134 
-4.918406 1.563788 284.405304 207 165 153 
-2.137963 0.706863 284.386505 185 147 128 
-2.070846 0.577887 288.155365 126 81 78 
-6.817868 2.043063 288.204865 137 93 90 
-6.321999 1.898056 287.911957 42 27 30 
-8.210144 2.471422 288.220337 113 74 67 
-10.931724 3.311805 288.132782 207 163 152 
-16.020727 4.889286 288.166962 167 140 131 
-16.318060 4.980339 288.195618 158 138 137 
-17.220961 5.259094 288.191010 191 154 145 
-16.997625 5.192044 288.118988 202 154 132 
-16.878569 5.155997 288.093536 193 148 125 
-15.870606 4.848866 287.940491 134 105 101 
-22.539679 6.901687 288.150421 243 190 186 
-24.451046 7.507501 287.539276 191 159 196 
-24.479332 7.528477 287.068115 250 190 164 
-24.604790 7.577352 286.677704 229 168 150 
-24.595081 7.595714 285.855377 233 176 149 
-22.818010 7.075498 284.767670 208 180 132 
-15.979228 4.985487 284.396729 249 206 189 
-15.876163 4.953590 284.397095 240 197 178 
-15.183840 4.739348 284.399994 220 180 168 
-14.216285 4.439974 284.403259 247 200 180 
-12.026110 3.762872 284.389679 198 159 144 
-11.274583 3.530414 284.389862 221 178 171 
-10.720770 3.359180 284.386749 223 175 163 
-9.570996 3.004284 284.356476 198 154 127 
-8.939552 2.808835 284.361298 197 149 127 
-5.927620 1.879775 284.408173 195 162 145 
-5.421611 1.722991 284.405121 196 160 146 
-5.247374 1.668952 284.406433 198 164 152 
-4.630358 1.477862 284.398590 209 173 151 
-3.904357 1.252997 284.390167 208 170 149 
-6.494639 1.944634 288.336884 92 57 55 
-10.517200 3.191645 288.131073 187 149 136 
-11.479408 3.488610 288.131470 213 166 150 
-12.598734 3.834192 288.126953 202 158 147 
-8.930444 2.721783 287.369812 159 129 118 
-15.768482 4.822840 288.144592 160 126 101 
-24.518387 7.528541 288.177155 177 144 139 
-22.219120 6.840486 287.289398 103 62 68 
-24.465992 7.544047 286.958038 251 205 181 
-24.520452 7.563735 286.849640 247 187 176 
-24.594839 7.597367 286.440826 232 172 148 
-24.585896 7.612668 285.745178 202 167 135 
-24.584841 7.615241 285.634491 215 168 162 
-24.583363 7.618873 285.476349 202 165 157 
-24.565521 7.618287 285.287109 195 156 159 
-22.804161 7.078546 285.092072 197 139 127 
-22.806908 7.082031 284.989105 196 144 122 
-12.437655 3.864667 285.374969 201 161 125 
-21.201292 6.614677 284.392914 240 207 202 
-15.469949 4.837932 284.399078 215 176 169 
-13.405552 4.197989 284.400879 202 161 141 
-11.586321 3.634377 284.389496 209 166 149 
-9.736347 3.061867 284.352875 216 164 143 
-9.110504 2.867709 284.359161 194 159 131 
-8.588563 2.705767 284.364471 188 147 129 
-1.513743 0.408280 288.153717 117 64 58 
-4.190900 1.252713 287.606598 148 118 107 
-7.192318 2.169811 288.149567 132 98 70 
-9.086941 2.756180 288.139862 116 76 66 
-9.293883 2.819760 288.156281 146 119 92 
-9.403185 2.853240 288.168427 234 191 174 
-12.106541 3.690614 288.126068 187 149 140 
-9.026322 2.763516 287.367096 155 130 125 
-15.490898 4.746447 288.169006 185 147 138 
-14.912611 4.578635 287.730652 81 51 41 
-22.022289 6.771550 288.146576 253 209 198 
-22.309259 6.860576 288.144989 241 194 186 
-23.617020 7.265932 288.145538 183 149 140 
-22.319138 6.882035 287.439484 202 114 128 
-24.588543 7.607696 286.583557 218 161 144 
-24.584482 7.616333 286.204010 206 152 140 
-24.582336 7.619757 286.045990 206 158 135 
-22.827415 7.092575 285.400055 201 163 160 
-22.795830 7.085821 285.283539 192 145 137 
-22.389740 6.998341 284.401581 170 134 122 
-22.131567 6.918421 284.391937 190 152 139 
-21.745869 6.798557 284.392670 211 171 159 
-21.550137 6.737712 284.393646 223 185 176 
-19.727901 6.171665 284.393127 226 180 164 
-18.596594 5.820217 284.391663 230 187 171 
-18.441875 5.772093 284.393494 230 189 169 
-16.090820 5.041698 284.395599 255 209 193 
-15.574840 4.881338 284.398010 214 174 162 
-14.817948 4.646094 284.401093 243 190 174 
-13.839045 4.341955 284.401703 234 181 163 
-7.380731 2.335263 284.413208 207 152 132 
-8.099641 2.454488 288.198303 136 89 79 
-10.728697 3.271227 288.131409 202 156 141 
-11.706009 3.574082 288.135132 229 178 161 
-12.704659 3.883789 288.128967 212 162 151 
-8.623685 2.637145 287.427002 184 154 116 
-9.442379 2.898212 287.397400 161 125 129 
-16.382790 5.034878 288.142181 226 188 175 
-21.472851 6.615991 288.150635 255 230 228 
-22.711121 7.000585 288.154175 221 176 171 
-24.433973 7.540297 287.981964 196 160 196 
-24.432119 7.544271 287.808289 200 165 197 
-24.443134 7.557093 287.446411 207 163 178 
-22.754248 7.038000 287.232605 136 96 88 
-24.446430 7.563043 287.257568 250 199 178 
-24.578848 7.627913 286.346771 208 151 134 
-22.798615 7.133237 284.666351 204 159 154 
-22.722898 7.116355 284.406555 179 145 133 
-21.362495 6.693195 284.394318 222 188 187 
-21.024996 6.588190 284.393219 237 212 208 
-20.016460 6.274170 284.394897 222 174 162 
-19.594654 6.142910 284.391663 221 178 162 
-19.179462 6.013735 284.389496 219 178 158 
-12.372326 3.882876 284.842133 252 212 202 
-15.279015 4.799251 284.399506 221 179 167 
-11.424927 3.599652 284.389923 222 174 170 
-11.131343 3.508316 284.388672 216 176 166 
-10.322171 3.256445 284.386993 208 168 156 
-8.834227 2.793825 284.363068 196 152 127 
-5.751339 1.836852 284.404633 203 166 147 
-3.646661 1.180541 284.388031 210 172 149 
-6.634789 2.006096 288.153717 154 127 120 
-9.513054 2.900800 288.136963 158 120 99 
-11.039253 3.375030 288.133728 193 151 137 
-12.224623 3.743590 288.123383 210 162 152 
-19.918385 6.143753 288.231812 255 243 230 
-22.123938 6.851689 287.414337 189 127 138 
-24.446474 7.581633 287.147949 254 230 196 
-24.577600 7.631815 286.789948 199 149 126 
-24.566536 7.650556 285.936249 201 148 134 
-24.545202 7.698344 284.481293 187 152 148 
-24.372459 7.646668 284.397736 189 153 141 
-24.072857 7.553450 284.386932 186 159 142 
-23.864510 7.488463 284.385864 182 156 143 
-23.640558 7.418572 284.386200 186 155 150 
-23.413462 7.347752 284.386993 186 151 147 
-23.051035 7.234386 284.397827 186 152 143 
-22.489494 7.058882 284.408936 174 138 126 
-18.752853 5.893613 284.389893 223 181 167 
-14.298936 4.503722 284.402802 240 192 172 
-14.056172 4.427989 284.403229 243 193 170 
-13.693154 4.314788 284.401062 223 171 147 
-12.347767 3.892910 284.482330 193 145 133 
-8.000709 2.539509 284.372253 199 150 133 
-6.952748 2.211483 284.413757 219 166 148 
-6.274923 2.000061 284.410675 201 164 146 
-4.024924 1.301563 284.392212 206 170 154 
-3.985714 1.195397 287.682556 118 89 83 
-9.625856 2.942020 288.136475 154 116 103 
-12.810802 3.933725 288.130737 208 179 149 
-9.136220 2.815825 287.372437 162 139 131 
-24.428373 7.567494 288.109497 183 154 176 
-21.115227 6.550778 287.461731 183 109 100 
-21.409769 6.644641 287.384766 199 121 117 
-21.612556 6.707985 287.383453 173 117 116 
-22.184587 6.891089 287.204193 178 114 114 
-24.430983 7.600384 286.880524 250 220 186 
-24.554644 7.673384 285.557404 197 164 159 
-22.785004 7.131036 285.181946 202 141 122 
-19.040550 5.997812 284.389191 219 177 165 
-16.702492 5.266401 284.397827 255 251 248 
-15.668034 4.942874 284.398193 209 167 153 
-15.076542 4.757793 284.401642 234 189 168 
-14.539275 4.589712 284.403503 237 192 163 
-13.545482 4.278992 284.401062 210 164 140 
-13.090819 4.136692 284.405060 188 146 121 
-11.858241 3.751620 284.389008 207 165 141 
-7.837983 2.494644 284.374573 201 154 134 
-7.135253 2.273852 284.414093 197 155 131 
-2.057829 0.572909 288.451477 89 42 34 
-4.717857 1.409414 288.307159 87 53 44 
-3.951115 1.182919 287.843323 78 47 52 
-17.267002 5.345331 288.144897 214 176 165 
-20.766119 6.438439 288.191620 255 210 213 
-21.922075 6.800586 288.168701 244 204 194 
-22.136347 6.868138 288.146332 249 200 186 
-21.758537 6.770041 287.379150 174 129 126 
-24.436916 7.616578 287.038757 254 242 204 
-24.557882 7.668230 286.506073 184 136 122 
-24.553089 7.676639 286.126831 172 124 112 
-24.549774 7.683397 285.826599 187 151 129 
-24.536348 7.709210 284.672241 188 155 104 
-24.256670 7.629073 284.390045 194 154 154 
-22.615036 7.115077 284.414551 181 144 136 
-22.282969 7.011690 284.395294 166 132 131 
-20.172256 6.351620 284.395142 219 178 176 
-19.324732 6.099980 284.389526 220 174 159 
-18.893221 5.964694 284.389801 222 175 165 
-16.289450 5.148429 284.396271 255 228 217 
-16.178402 5.113638 284.397034 249 212 196 
-14.901784 4.713378 284.401245 239 186 168 
-14.634057 4.629457 284.402252 234 189 160 
-12.198941 3.866560 284.389221 184 141 132 
-10.854226 3.445127 284.386749 220 171 167 
-9.923824 3.154407 284.352295 194 152 127 
-8.360470 2.556669 288.264160 131 88 72 
-11.139066 3.429185 288.132294 194 157 148 
-11.820174 3.642147 288.134583 207 166 148 
-12.354669 3.809608 288.122955 201 159 135 
-12.918679 3.985734 288.132629 253 187 175 
-22.498062 6.996490 288.152252 240 199 195 
-24.402655 7.599888 287.903900 192 165 196 
-21.136253 6.590149 287.369049 182 109 100 
-22.120724 6.900030 287.316284 162 105 112 
-24.552235 7.678338 286.696198 177 130 112 
-24.547529 7.687968 286.269409 178 134 123 
-24.540827 7.700272 285.716461 178 150 129 
-24.537415 7.706204 285.447876 193 165 162 
-24.536293 7.716171 285.052490 185 137 123 
-21.924492 6.914666 284.393585 175 138 132 
-20.857782 6.580333 284.393097 234 203 218 
-20.674881 6.523022 284.394196 235 204 219 
-20.337959 6.417385 284.394775 218 189 191 
-19.863958 6.268843 284.394714 209 166 159 
-19.464520 6.156594 284.390137 213 169 158 
-16.499817 5.225238 284.396362 255 255 255 
-16.398657 5.193470 284.395844 252 241 239 
-15.771203 4.996390 284.397491 203 166 158 
-11.747169 3.732691 284.388947 206 154 140 
-10.188630 3.243910 284.360809 159 131 107 
-9.467286 3.017485 284.354889 204 157 129 
-9.281630 2.959113 284.357269 192 147 124 
-5.586704 1.801162 284.404205 197 163 151 
-7.599632 2.324628 288.235168 106 60 71 
-9.047018 2.777755 288.256134 94 58 46 
-9.824546 3.024651 288.135406 153 123 99 
-11.546211 3.564366 288.132629 217 171 148 
-11.931534 3.685168 288.131226 200 149 145 
-9.232843 2.859135 287.375214 164 128 128 
-21.392580 6.663113 288.188446 255 215 210 
